0.394229 0.422049 0.041884 1.000000 0.000000 0.000000
-0.375651 0.410110 -0.047668 1.000000 0.000000 0.000000
-0.372865 -0.494939 0.037858 1.000000 0.000000 0.000000
0.004909 0.726625 -0.015862 0.800000 0.200000 0.500000
-0.274992 -0.034362 -0.013935 0.800000 0.200000 0.500000
-0.327290 -0.787592 -0.043880 1.000000 0.000000 0.000000
0.080917 0.398944 0.013999 0.800000 0.200000 0.500000
-0.376961 -0.135895 0.046589 1.000000 0.000000 0.000000
-0.165044 0.178415 0.012072 0.800000 0.200000 0.500000
0.340891 -0.461042 -0.044498 1.000000 0.000000 0.000000
0.079084 0.821794 -0.047713 1.000000 0.000000 0.000000
-0.062601 -0.698272 -0.015862 0.800000 0.200000 0.500000
0.393558 0.006137 0.045044 1.000000 0.000000 0.000000
0.115016 -0.086133 0.013999 0.800000 0.200000 0.500000
-0.374917 -0.685032 -0.047683 1.000000 0.000000 0.000000
0.394048 0.644891 0.043841 1.000000 0.000000 0.000000
-0.263153 0.336009 0.013999 0.800000 0.200000 0.500000
0.333679 0.826247 -0.046989 1.000000 0.000000 0.000000
0.266283 -0.281661 -0.015862 0.800000 0.200000 0.500000
-0.239485 0.773667 -0.044158 1.000000 0.000000 0.000000
-0.273243 0.207932 0.012072 0.800000 0.200000 0.500000
-0.331282 -0.843672 0.045060 0.800000 0.200000 0.500000
0.034448 0.213717 -0.015862 0.800000 0.200000 0.500000
0.360236 0.475213 -0.047786 1.000000 0.000000 0.000000
0.373676 -0.858548 -0.047787 1.000000 0.000000 0.000000
0.310223 0.577300 -0.013935 0.800000 0.200000 0.500000
0.390446 -0.620204 0.039995 1.000000 0.000000 0.000000
0.392189 0.250505 -0.045128 1.000000 0.000000 0.000000
0.338630 -0.066922 -0.042389 1.000000 0.000000 0.000000
0.096903 -0.571503 -0.015862 0.800000 0.200000 0.500000
-0.093905 -0.286214 0.013999 0.800000 0.200000 0.500000
-0.333722 0.603837 0.046244 0.800000 0.200000 0.500000
-0.068451 0.242523 -0.015862 0.800000 0.200000 0.500000
-0.349003 -0.101590 -0.047786 1.000000 0.000000 0.000000
-0.085475 0.364781 -0.015862 0.800000 0.200000 0.500000
0.365055 -0.412863 0.046925 1.000000 0.000000 0.000000
-0.326376 0.054981 0.041648 0.800000 0.200000 0.500000
-0.103101 0.562147 -0.015862 0.800000 0.200000 0.500000
-0.188188 0.404789 0.014025 0.800000 0.200000 0.500000
-0.285665 -0.263842 -0.015862 0.800000 0.200000 0.500000
0.392042 -0.738181 0.045709 1.000000 0.000000 0.000000
0.130693 0.574802 0.013999 0.800000 0.200000 0.500000
-0.371211 0.250982 0.046859 1.000000 0.000000 0.000000
-0.348652 0.166422 -0.047786 1.000000 0.000000 0.000000
0.105030 0.287583 -0.015862 0.800000 0.200000 0.500000
-0.277049 -0.363884 -0.015862 0.800000 0.200000 0.500000
-0.335999 0.688152 -0.047320 1.000000 0.000000 0.000000
-0.151868 0.736785 0.013999 0.800000 0.200000 0.500000
0.352685 0.153014 -0.047722 1.000000 0.000000 0.000000
-0.182331 -0.207536 0.013999 0.800000 0.200000 0.500000
-0.025101 -0.411692 -0.013678 0.800000 0.200000 0.500000
0.160159 0.455907 0.013999 0.800000 0.200000 0.500000
-0.191499 -0.411000 -0.015862 0.800000 0.200000 0.500000
0.392873 -0.259922 -0.037123 1.000000 0.000000 0.000000
-0.289804 -0.547276 -0.015862 0.800000 0.200000 0.500000
0.071259 -0.259723 0.010915 0.800000 0.200000 0.500000
-0.380911 -0.629148 0.043298 1.000000 0.000000 0.000000
-0.095973 0.812821 0.046925 1.000000 0.000000 0.000000
-0.038285 0.054540 -0.015862 0.800000 0.200000 0.500000
-0.268159 -0.736662 0.013999 0.800000 0.200000 0.500000
-0.082260 -0.071619 -0.015862 0.800000 0.200000 0.500000
-0.008784 0.419253 -0.015862 0.800000 0.200000 0.500000
-0.303626 0.539203 -0.013935 0.800000 0.200000 0.500000
-0.305635 -0.927339 0.012807 0.800000 0.200000 0.500000
0.291247 0.332078 -0.013935 0.800000 0.200000 0.500000
0.392873 0.755146 -0.035925 1.000000 0.000000 0.000000
0.339381 0.102690 0.042859 1.000000 0.000000 0.000000
0.081690 -0.747991 0.013999 0.800000 0.200000 0.500000
-0.166370 -0.927326 0.013019 0.800000 0.200000 0.500000
0.162496 0.100761 -0.015862 0.800000 0.200000 0.500000
0.174630 0.747075 -0.015826 0.800000 0.200000 0.500000
-0.184090 -0.120401 -0.013935 0.800000 0.200000 0.500000
0.157037 -0.165375 -0.015862 0.800000 0.200000 0.500000
-0.024673 -0.219587 -0.013935 0.800000 0.200000 0.500000
-0.173869 0.638099 0.012072 0.800000 0.200000 0.500000
0.279994 -0.537046 0.013998 0.800000 0.200000 0.500000
0.391777 0.595799 -0.045477 1.000000 0.000000 0.000000
0.261195 0.025144 -0.013935 0.800000 0.200000 0.500000
0.162841 -0.900234 -0.015862 0.800000 0.200000 0.500000
0.246147 -0.744213 -0.013935 0.800000 0.200000 0.500000
-0.000068 -0.882841 -0.013935 0.800000 0.200000 0.500000
-0.112560 -0.368621 -0.013677 0.800000 0.200000 0.500000
0.335724 -0.329279 0.036122 1.000000 0.000000 0.000000
-0.338473 -0.405923 0.035683 1.000000 0.000000 0.000000
0.082852 0.008888 0.013999 0.800000 0.200000 0.500000
-0.336408 -0.213583 0.034634 1.000000 0.000000 0.000000
0.274732 -0.200012 0.014133 0.800000 0.200000 0.500000
0.388558 -0.840645 0.046639 1.000000 0.000000 0.000000
-0.027906 0.529439 0.013999 0.800000 0.200000 0.500000
0.375457 0.734355 0.046925 1.000000 0.000000 0.000000
0.004880 -0.550310 -0.013935 0.800000 0.200000 0.500000
0.212209 0.817615 0.046925 1.000000 0.000000 0.000000
0.180627 -0.597858 0.010748 0.800000 0.200000 0.500000
0.134030 -0.456841 -0.013714 0.800000 0.200000 0.500000
0.245820 -0.840980 -0.013935 0.800000 0.200000 0.500000
-0.132484 -0.635124 -0.015862 0.800000 0.200000 0.500000
-0.367920 -0.327325 -0.047787 1.000000 0.000000 0.000000
0.378395 -0.771331 -0.037753 1.000000 0.000000 0.000000
0.081243 -0.833143 0.012072 0.800000 0.200000 0.500000
-0.373898 0.502940 -0.047704 1.000000 0.000000 0.000000
-0.191065 -0.491005 0.012072 0.800000 0.200000 0.500000
0.179954 0.252178 0.013999 0.800000 0.200000 0.500000
0.321008 -0.704869 0.012072 0.800000 0.200000 0.500000
0.222799 -0.042962 -0.051591 0.600000 0.300000 0.000000
-0.196114 -0.791322 -0.015862 0.800000 0.200000 0.500000
-0.020135 -0.129113 0.012072 0.800000 0.200000 0.500000
-0.380182 -0.912008 0.043241 1.000000 0.000000 0.000000
0.323246 -0.917019 -0.013652 0.800000 0.200000 0.500000
0.206490 0.172641 -0.013473 0.800000 0.200000 0.500000
-0.380411 0.827841 0.042377 1.000000 0.000000 0.000000
-0.215077 0.474768 -0.015862 0.800000 0.200000 0.500000
0.193154 -0.323116 -0.015862 0.800000 0.200000 0.500000
-0.337480 -0.480114 -0.032917 1.000000 0.000000 0.000000
0.255602 -0.458158 -0.015862 0.800000 0.200000 0.500000
-0.069407 0.745745 0.012072 0.800000 0.200000 0.500000
-0.025479 0.824847 -0.047642 1.000000 0.000000 0.000000
0.306152 0.177484 0.012072 0.800000 0.200000 0.500000
-0.323135 0.351507 -0.036150 1.000000 0.000000 0.000000
0.053276 -0.402743 -0.013936 0.800000 0.200000 0.500000
0.015274 -0.710576 -0.013935 0.800000 0.200000 0.500000
-0.211446 0.033409 -0.015862 0.800000 0.200000 0.500000
-0.101631 0.005471 -0.015862 0.800000 0.200000 0.500000
-0.344224 -0.011981 -0.047782 1.000000 0.000000 0.000000
0.306490 0.501923 0.013998 0.800000 0.200000 0.500000
-0.330783 0.761800 -0.020686 0.800000 0.200000 0.500000
0.392873 -0.517864 -0.030865 1.000000 0.000000 0.000000
-0.268895 0.610485 -0.015862 0.800000 0.200000 0.500000
0.047461 0.768136 0.037566 1.000000 0.000000 0.000000
-0.356683 0.427699 0.036031 1.000000 0.000000 0.000000
-0.166965 0.829337 -0.042231 1.000000 0.000000 0.000000
-0.028865 -0.487447 0.013999 0.800000 0.200000 0.500000
0.195274 -0.071293 0.013999 0.800000 0.200000 0.500000
0.335974 -0.055126 0.036700 1.000000 0.000000 0.000000
-0.237088 0.768643 0.038596 1.000000 0.000000 0.000000
0.344948 -0.166582 0.028483 0.800000 0.200000 0.500000
0.345351 0.364400 0.045916 1.000000 0.000000 0.000000
0.276934 0.769582 -0.040883 1.000000 0.000000 0.000000
-0.310984 0.138949 0.012072 0.800000 0.200000 0.500000
0.316954 -0.625546 0.014355 0.800000 0.200000 0.500000
0.392873 -0.016847 -0.026120 1.000000 0.000000 0.000000
0.097461 0.750750 -0.015802 0.800000 0.200000 0.500000
0.298925 0.694658 0.013999 0.800000 0.200000 0.500000
-0.293917 0.824384 -0.037544 1.000000 0.000000 0.000000
-0.380476 0.652505 0.015015 1.000000 0.000000 0.000000
0.392873 0.069510 0.001122 1.000000 0.000000 0.000000
-0.216167 -0.647564 -0.013935 0.800000 0.200000 0.500000
0.144537 0.828824 -0.012951 1.000000 0.000000 0.000000
0.037090 -0.086038 -0.013603 0.800000 0.200000 0.500000
-0.380476 -0.825559 -0.010045 1.000000 0.000000 0.000000
0.026654 0.147190 0.013999 0.800000 0.200000 0.500000
0.190458 -0.704211 0.012072 0.800000 0.200000 0.500000
-0.332981 -0.574358 0.045939 0.800000 0.200000 0.500000
-0.301784 -0.101725 0.013989 0.800000 0.200000 0.500000
0.319875 -0.392722 -0.013757 0.800000 0.200000 0.500000
0.319134 0.830124 0.039432 1.000000 0.000000 0.000000
0.122620 -0.306220 -0.015862 0.800000 0.200000 0.500000
0.192147 -0.409084 -0.013935 0.800000 0.200000 0.500000
-0.128864 -0.529136 -0.015862 0.800000 0.200000 0.500000
0.186637 0.609963 -0.013935 0.800000 0.200000 0.500000
-0.124286 -0.745010 -0.013935 0.800000 0.200000 0.500000
-0.217498 0.242723 -0.015862 0.800000 0.200000 0.500000
-0.329917 -0.627545 -0.045230 1.000000 0.000000 0.000000
0.075255 0.610749 -0.013935 0.800000 0.200000 0.500000
0.388431 -0.927628 -0.045342 1.000000 0.000000 0.000000
0.225622 0.450579 -0.013696 0.800000 0.200000 0.500000
0.349193 0.590826 0.046523 1.000000 0.000000 0.000000
-0.062890 0.305729 0.014204 0.800000 0.200000 0.500000
-0.285425 0.043981 -0.013935 0.800000 0.200000 0.500000
-0.059987 -0.847102 -0.015862 0.800000 0.200000 0.500000
-0.380476 0.303020 -0.003469 1.000000 0.000000 0.000000
-0.297835 -0.845051 -0.015859 0.800000 0.200000 0.500000
0.227601 0.302588 0.012072 0.800000 0.200000 0.500000
-0.047802 -0.626095 -0.015862 0.800000 0.200000 0.500000
0.247624 0.593558 0.013999 0.800000 0.200000 0.500000
-0.139656 -0.868476 -0.013935 0.800000 0.200000 0.500000
0.103314 -0.198628 0.012072 0.800000 0.200000 0.500000
-0.324620 0.300752 0.038592 0.800000 0.200000 0.500000
0.389461 -0.116144 -0.037887 1.000000 0.000000 0.000000
-0.059256 -0.759660 0.013999 0.800000 0.200000 0.500000
0.329509 0.032253 0.019521 0.800000 0.200000 0.500000
0.062981 -0.337698 0.012072 0.800000 0.200000 0.500000
-0.230561 -0.079007 0.013999 0.800000 0.200000 0.500000
0.236589 0.370804 0.013999 0.800000 0.200000 0.500000
-0.380476 0.211265 -0.007704 1.000000 0.000000 0.000000
0.333388 0.264333 -0.013528 0.800000 0.200000 0.500000
0.042435 0.677584 0.012072 0.800000 0.200000 0.500000
-0.099239 0.177389 -0.015862 0.800000 0.200000 0.500000
0.133990 0.514240 -0.015862 0.800000 0.200000 0.500000
0.279476 -0.050819 -0.013935 0.800000 0.200000 0.500000
-0.322886 0.689520 0.034546 0.800000 0.200000 0.500000
-0.125016 -0.228747 -0.013941 0.800000 0.200000 0.500000
0.343476 0.407760 -0.025595 0.800000 0.200000 0.500000
-0.049173 0.602910 -0.015862 0.800000 0.200000 0.500000
-0.380476 -0.755432 -0.018587 1.000000 0.000000 0.000000
0.392873 -0.286692 0.025450 1.000000 0.000000 0.000000
0.392873 -0.430647 -0.011292 1.000000 0.000000 0.000000
0.330875 -0.239163 -0.022836 1.000000 0.000000 0.000000
0.214003 -0.200489 -0.013835 0.800000 0.200000 0.500000
0.304522 0.086448 -0.015862 0.800000 0.200000 0.500000
0.017984 0.034885 0.013999 0.800000 0.200000 0.500000
-0.031084 0.676376 0.012072 0.800000 0.200000 0.500000
0.392873 0.693030 -0.002131 1.000000 0.000000 0.000000
0.245567 -0.598875 -0.012302 0.800000 0.200000 0.500000
0.333483 -0.317302 -0.029143 1.000000 0.000000 0.000000
-0.161727 0.502704 0.012072 0.800000 0.200000 0.500000
-0.323395 -0.712981 -0.014038 0.800000 0.200000 0.500000
-0.212799 0.721312 -0.013555 0.800000 0.200000 0.500000
0.392873 -0.205758 0.005170 1.000000 0.000000 0.000000
0.084095 -0.632178 0.012072 0.800000 0.200000 0.500000
-0.247722 -0.217803 0.012072 0.800000 0.200000 0.500000
0.119468 -0.515657 0.012072 0.800000 0.200000 0.500000
0.209269 0.057064 0.012072 0.800000 0.200000 0.500000
-0.380476 -0.271240 -0.016080 1.000000 0.000000 0.000000
0.165216 0.682052 0.012072 0.800000 0.200000 0.500000
0.059214 0.337060 0.013999 0.800000 0.200000 0.500000
0.330928 -0.462883 0.021874 1.000000 0.000000 0.000000
0.075959 0.828824 0.022219 1.000000 0.000000 0.000000
-0.180594 0.113255 0.011882 0.800000 0.200000 0.500000
-0.331516 0.626667 -0.023389 0.800000 0.200000 0.500000
-0.200266 0.334012 -0.015862 0.800000 0.200000 0.500000
0.392873 0.242100 0.023978 1.000000 0.000000 0.000000
-0.127303 0.231197 0.013999 0.800000 0.200000 0.500000
-0.247801 0.391558 -0.015862 0.800000 0.200000 0.500000
-0.273330 0.275616 -0.015862 0.800000 0.200000 0.500000
-0.051260 -0.359383 0.013999 0.800000 0.200000 0.500000
-0.380476 0.037220 0.007351 1.000000 0.000000 0.000000
0.351902 0.541388 -0.047647 1.000000 0.000000 0.000000
-0.247563 -0.926902 -0.015283 0.800000 0.200000 0.500000
-0.380476 0.563963 0.026808 1.000000 0.000000 0.000000
-0.334294 -0.680411 0.046296 0.800000 0.200000 0.500000
0.306972 -0.106875 0.012072 0.800000 0.200000 0.500000
0.354327 0.474681 0.046920 1.000000 0.000000 0.000000
0.392873 0.336484 0.013363 1.000000 0.000000 0.000000
0.329774 0.739681 -0.020669 0.800000 0.200000 0.500000
0.335522 -0.874609 0.035414 1.000000 0.000000 0.000000
0.277073 0.828824 -0.008261 1.000000 0.000000 0.000000
0.094867 0.459651 -0.013936 0.800000 0.200000 0.500000
0.392549 -0.611062 -0.041704 1.000000 0.000000 0.000000
0.103137 0.131631 -0.013935 0.800000 0.200000 0.500000
-0.246033 0.828824 0.004574 1.000000 0.000000 0.000000
-0.336088 0.198514 0.046467 0.800000 0.200000 0.500000
0.189943 -0.850123 0.013999 0.800000 0.200000 0.500000
0.229513 0.738141 0.013999 0.800000 0.200000 0.500000
-0.322512 -0.008086 0.032030 0.800000 0.200000 0.500000
-0.335405 -0.161381 -0.033265 1.000000 0.000000 0.000000
-0.043114 0.471976 -0.015862 0.800000 0.200000 0.500000
0.122435 0.342453 0.012072 0.800000 0.200000 0.500000
0.048781 0.275250 0.012072 0.800000 0.200000 0.500000
-0.012492 0.247023 0.012072 0.800000 0.200000 0.500000
0.289191 0.636122 -0.013935 0.800000 0.200000 0.500000
0.111424 0.056389 -0.015862 0.800000 0.200000 0.500000
-0.132099 0.406106 -0.013640 0.800000 0.200000 0.500000
-0.132473 -0.093143 0.013999 0.800000 0.200000 0.500000
-0.245776 -0.585178 0.014497 0.800000 0.200000 0.500000
0.037990 0.454270 0.013999 0.800000 0.200000 0.500000
0.392873 0.827617 -0.028802 1.000000 0.000000 0.000000
0.039810 0.774102 -0.044434 1.000000 0.000000 0.000000
-0.252539 0.518957 0.013999 0.800000 0.200000 0.500000
-0.235673 0.166337 -0.015862 0.800000 0.200000 0.500000
-0.335571 0.456786 -0.033598 1.000000 0.000000 0.000000
0.392873 -0.682808 0.019012 1.000000 0.000000 0.000000
0.349416 -0.575231 0.046545 1.000000 0.000000 0.000000
-0.347155 -0.077395 0.046923 1.000000 0.000000 0.000000
-0.285106 0.737901 0.012072 0.800000 0.200000 0.500000
-0.032360 0.358496 0.013999 0.800000 0.200000 0.500000
-0.322101 0.098335 -0.032011 1.000000 0.000000 0.000000
-0.321841 -0.775995 0.028686 0.800000 0.200000 0.500000
0.059890 0.559140 0.014404 0.800000 0.200000 0.500000
0.392873 -0.361803 0.029290 1.000000 0.000000 0.000000
-0.037410 0.785597 0.046674 1.000000 0.000000 0.000000
-0.170464 0.766656 -0.035380 1.000000 0.000000 0.000000
-0.380476 -0.550639 0.015203 1.000000 0.000000 0.000000
-0.077411 0.100937 -0.015862 0.800000 0.200000 0.500000
0.392873 -0.570141 0.002922 1.000000 0.000000 0.000000
-0.321640 0.378807 0.030195 0.800000 0.200000 0.500000
0.114792 -0.032756 -0.015862 0.800000 0.200000 0.500000
-0.267987 -0.801897 0.013999 0.800000 0.200000 0.500000
-0.380476 0.125255 -0.010775 1.000000 0.000000 0.000000
0.333429 -0.525664 -0.013528 0.800000 0.200000 0.500000
0.133991 0.398969 -0.013937 0.800000 0.200000 0.500000
-0.156686 -0.271194 0.013999 0.800000 0.200000 0.500000
0.334702 -0.668465 -0.033403 1.000000 0.000000 0.000000
-0.030481 0.193443 -0.015862 0.800000 0.200000 0.500000
-0.250569 -0.303116 0.012072 0.800000 0.200000 0.500000
0.070844 -0.688981 -0.013935 0.800000 0.200000 0.500000
-0.065281 0.828824 -0.003626 1.000000 0.000000 0.000000
0.392873 0.132062 0.000751 1.000000 0.000000 0.000000
-0.308630 -0.420118 -0.013717 0.800000 0.200000 0.500000
-0.132544 0.344383 0.014128 0.800000 0.200000 0.500000
0.205077 -0.466351 0.013999 0.800000 0.200000 0.500000
0.392873 0.488652 -0.000248 1.000000 0.000000 0.000000
-0.380476 -0.364672 0.029778 1.000000 0.000000 0.000000
0.214769 -0.015184 0.012072 0.800000 0.200000 0.500000
-0.119160 -0.692191 0.012072 0.800000 0.200000 0.500000
-0.035346 -0.278737 0.012073 0.800000 0.200000 0.500000
-0.210299 -0.253879 -0.015862 0.800000 0.200000 0.500000
-0.234855 -0.525982 -0.015862 0.800000 0.200000 0.500000
0.332217 0.647311 0.025002 1.000000 0.000000 0.000000
-0.322370 0.482025 0.032749 0.800000 0.200000 0.500000
-0.165829 -0.367348 0.013999 0.800000 0.200000 0.500000
-0.377298 0.730249 -0.037781 1.000000 0.000000 0.000000
0.211579 -0.784934 0.013999 0.800000 0.200000 0.500000
0.140183 -0.743381 0.013999 0.800000 0.200000 0.500000
0.338932 0.213903 -0.042939 1.000000 0.000000 0.000000
0.343116 0.209527 0.044773 1.000000 0.000000 0.000000
0.000056 0.098194 -0.011325 0.800000 0.200000 0.500000
-0.156102 0.582619 0.012072 0.800000 0.200000 0.500000
-0.313091 -0.318305 -0.017850 0.800000 0.200000 0.500000
0.093690 0.228435 0.014071 0.800000 0.200000 0.500000
0.193465 -0.129894 0.012072 0.800000 0.200000 0.500000
-0.318776 0.214985 -0.022989 0.800000 0.200000 0.500000
0.311406 -0.856510 -0.013935 0.800000 0.200000 0.500000
-0.327130 -0.232098 -0.043797 1.000000 0.000000 0.000000
-0.322930 -0.894834 -0.033963 1.000000 0.000000 0.000000
0.278372 -0.330741 0.012072 0.800000 0.200000 0.500000
-0.058649 -0.528746 -0.013935 0.800000 0.200000 0.500000
-0.319633 -0.155700 0.023696 0.800000 0.200000 0.500000
-0.380476 -0.055180 -0.034322 1.000000 0.000000 0.000000
0.011013 -0.373495 0.012072 0.800000 0.200000 0.500000
-0.153170 0.030940 0.012072 0.800000 0.200000 0.500000
-0.372685 -0.795544 0.046790 1.000000 0.000000 0.000000
-0.380476 0.361591 -0.017429 1.000000 0.000000 0.000000
0.336204 -0.013649 -0.014149 0.800000 0.200000 0.500000
-0.087109 0.052610 0.013999 0.800000 0.200000 0.500000
-0.380476 -0.180051 0.010322 1.000000 0.000000 0.000000
0.130815 0.625265 -0.013935 0.800000 0.200000 0.500000
-0.081931 -0.417783 -0.015862 0.800000 0.200000 0.500000
0.392676 0.193193 -0.040279 1.000000 0.000000 0.000000
0.339712 0.619363 -0.043895 1.000000 0.000000 0.000000
0.392873 -0.047554 0.025422 1.000000 0.000000 0.000000
-0.055654 -0.010587 0.013999 0.800000 0.200000 0.500000
-0.350189 0.777754 0.036454 1.000000 0.000000 0.000000
0.394240 -0.466337 0.043449 1.000000 0.000000 0.000000
0.300908 -0.156295 -0.015862 0.800000 0.200000 0.500000
-0.021765 -0.073096 -0.015862 0.800000 0.200000 0.500000
0.102009 -0.141564 0.012072 0.800000 0.200000 0.500000
0.117594 -0.877000 0.012072 0.800000 0.200000 0.500000
0.337659 -0.724804 -0.040622 1.000000 0.000000 0.000000
-0.380476 0.087934 0.033068 1.000000 0.000000 0.000000
0.182907 -0.653027 -0.013936 0.800000 0.200000 0.500000
0.020944 -0.835689 0.013999 0.800000 0.200000 0.500000
-0.075069 -0.218350 0.012072 0.800000 0.200000 0.500000
-0.239887 -0.401434 0.012072 0.800000 0.200000 0.500000
-0.141129 0.689514 -0.015862 0.800000 0.200000 0.500000
-0.374644 -0.254429 0.046698 1.000000 0.000000 0.000000
0.019863 -0.256391 -0.012451 0.800000 0.200000 0.500000
-0.159413 0.782990 0.046527 1.000000 0.000000 0.000000
-0.153787 -0.459032 -0.015862 0.800000 0.200000 0.500000
0.377181 0.093019 -0.047787 1.000000 0.000000 0.000000
-0.084775 0.517848 0.013999 0.800000 0.200000 0.500000
-0.380476 -0.642009 -0.011596 1.000000 0.000000 0.000000
0.392873 -0.876680 0.001895 1.000000 0.000000 0.000000
-0.319567 -0.505678 0.023535 0.800000 0.200000 0.500000
0.057996 -0.879843 -0.013935 0.800000 0.200000 0.500000
0.392873 0.389333 -0.006463 1.000000 0.000000 0.000000
-0.225739 -0.145449 0.013999 0.800000 0.200000 0.500000
-0.245775 -0.695052 -0.015862 0.800000 0.200000 0.500000
-0.220899 0.604164 0.012072 0.800000 0.200000 0.500000
-0.213258 -0.030916 -0.015862 0.800000 0.200000 0.500000
-0.080448 -0.121470 0.013999 0.800000 0.200000 0.500000
0.105920 -0.788536 -0.015862 0.800000 0.200000 0.500000
0.013443 0.553371 -0.015862 0.800000 0.200000 0.500000
-0.112795 0.619854 0.013999 0.800000 0.200000 0.500000
0.086769 -0.437571 0.014048 0.800000 0.200000 0.500000
-0.214514 0.665794 -0.015862 0.800000 0.200000 0.500000
-0.378299 -0.521447 -0.038919 1.000000 0.000000 0.000000
-0.223157 0.289219 0.013999 0.800000 0.200000 0.500000
-0.068537 0.417679 -0.015862 0.800000 0.200000 0.500000
0.392873 -0.801535 0.007474 1.000000 0.000000 0.000000
0.268374 0.542141 0.013999 0.800000 0.200000 0.500000
0.341493 0.779923 0.046454 1.000000 0.000000 0.000000
0.045290 -0.024662 -0.015862 0.800000 0.200000 0.500000
-0.179255 -0.842456 0.014536 0.800000 0.200000 0.500000
0.168719 0.791708 -0.047787 1.000000 0.000000 0.000000
-0.115982 0.283806 -0.015862 0.800000 0.200000 0.500000
0.051813 -0.580698 0.014496 0.800000 0.200000 0.500000
0.055206 -0.527918 -0.015862 0.800000 0.200000 0.500000
-0.380476 -0.460299 -0.004256 1.000000 0.000000 0.000000
-0.126923 0.125284 0.013999 0.800000 0.200000 0.500000
-0.132449 -0.311720 -0.015862 0.800000 0.200000 0.500000
0.167297 0.296631 -0.015862 0.800000 0.200000 0.500000
-0.155210 -0.167021 -0.015862 0.800000 0.200000 0.500000
-0.119636 0.828824 -0.009095 1.000000 0.000000 0.000000
0.312567 -0.285115 0.013992 0.800000 0.200000 0.500000
0.018864 -0.926564 0.012587 0.800000 0.200000 0.500000
-0.213824 -0.748001 0.012072 0.800000 0.200000 0.500000
-0.033569 0.763645 -0.026473 0.800000 0.200000 0.500000
-0.379308 0.646989 -0.039619 1.000000 0.000000 0.000000
0.023923 0.367527 -0.013935 0.800000 0.200000 0.500000
0.006265 -0.456982 -0.013935 0.800000 0.200000 0.500000
-0.021084 -0.588491 0.014497 0.800000 0.200000 0.500000
0.335351 0.425444 0.034815 1.000000 0.000000 0.000000
-0.332673 0.547195 0.045783 0.800000 0.200000 0.500000
0.347244 -0.672406 0.046336 1.000000 0.000000 0.000000
-0.178649 -0.620645 0.013999 0.800000 0.200000 0.500000
-0.018381 -0.677358 0.012072 0.800000 0.200000 0.500000
-0.380476 0.466017 0.004554 1.000000 0.000000 0.000000
0.027105 0.828824 -0.019218 1.000000 0.000000 0.000000
0.181459 0.406433 0.011806 0.800000 0.200000 0.500000
0.075344 0.170134 0.012072 0.800000 0.200000 0.500000
-0.321323 0.405058 -0.028963 1.000000 0.000000 0.000000
-0.380476 0.783309 -0.016205 1.000000 0.000000 0.000000
0.392873 0.589597 0.015145 1.000000 0.000000 0.000000
0.343028 -0.762095 0.044724 1.000000 0.000000 0.000000
-0.380476 -0.703336 0.002591 1.000000 0.000000 0.000000
0.264710 0.828676 0.044135 1.000000 0.000000 0.000000
0.223032 0.216850 0.012072 0.800000 0.200000 0.500000
0.127163 -0.616840 -0.015862 0.800000 0.200000 0.500000
0.173595 0.773033 0.042779 1.000000 0.000000 0.000000
0.134769 0.725928 0.013999 0.800000 0.200000 0.500000
0.213980 -0.284154 0.013999 0.800000 0.200000 0.500000
-0.380476 -0.099409 0.007908 1.000000 0.000000 0.000000
0.392873 -0.152521 0.007321 1.000000 0.000000 0.000000
0.038282 -0.209127 0.013999 0.800000 0.200000 0.500000
0.282885 0.284272 0.013999 0.800000 0.200000 0.500000
0.392873 0.644299 -0.023032 1.000000 0.000000 0.000000
0.341825 0.316468 -0.018032 0.800000 0.200000 0.500000
0.268316 0.150947 -0.013715 0.800000 0.200000 0.500000
-0.380582 -0.437965 0.043577 1.000000 0.000000 0.000000
-0.343946 -0.374313 -0.047782 1.000000 0.000000 0.000000
-0.230064 0.825418 -0.047628 1.000000 0.000000 0.000000
-0.168179 0.450767 -0.015862 0.800000 0.200000 0.500000
-0.249813 0.013143 0.013999 0.800000 0.200000 0.500000
-0.351522 -0.848051 -0.047787 1.000000 0.000000 0.000000
0.392873 0.439711 -0.026895 1.000000 0.000000 0.000000
-0.222097 -0.355725 -0.015862 0.800000 0.200000 0.500000
0.177745 0.550831 0.013999 0.800000 0.200000 0.500000
-0.322256 -0.059079 -0.032946 1.000000 0.000000 0.000000
0.321938 0.460283 -0.013727 0.800000 0.200000 0.500000
0.241715 0.491895 0.014094 0.800000 0.200000 0.500000
0.338179 -0.820647 -0.041568 1.000000 0.000000 0.000000
0.392873 0.781220 0.009253 1.000000 0.000000 0.000000
-0.090996 -0.645284 0.013999 0.800000 0.200000 0.500000
-0.134667 -0.409076 0.012072 0.800000 0.200000 0.500000
-0.380476 0.256888 -0.032879 1.000000 0.000000 0.000000
-0.350285 0.828824 -0.000101 1.000000 0.000000 0.000000
0.157380 0.055070 0.013999 0.800000 0.200000 0.500000
-0.201781 -0.893780 -0.015862 0.800000 0.200000 0.500000
0.164752 0.211272 -0.013936 0.800000 0.200000 0.500000
-0.156865 -0.775581 0.013999 0.800000 0.200000 0.500000
-0.324875 -0.586805 -0.013726 0.800000 0.200000 0.500000
-0.148441 -0.577330 0.014458 0.800000 0.200000 0.500000
-0.329313 -0.627903 0.044042 0.800000 0.200000 0.500000
-0.269212 0.567761 0.013999 0.800000 0.200000 0.500000
-0.047804 -0.173501 -0.013935 0.800000 0.200000 0.500000
-0.110851 -0.039085 0.012072 0.800000 0.200000 0.500000
-0.298845 0.668534 -0.015859 0.800000 0.200000 0.500000
0.334128 -0.117061 -0.031398 1.000000 0.000000 0.000000
0.229584 -0.547565 0.014448 0.800000 0.200000 0.500000
0.220139 -0.888147 -0.015862 0.800000 0.200000 0.500000
0.273319 -0.876784 0.013999 0.800000 0.200000 0.500000
-0.324121 -0.455187 0.037120 0.800000 0.200000 0.500000
-0.347138 0.546703 -0.047785 1.000000 0.000000 0.000000
0.138361 -0.569040 0.014309 0.800000 0.200000 0.500000
-0.000100 0.772601 0.014148 0.800000 0.200000 0.500000
-0.226769 -0.447984 -0.013935 0.800000 0.200000 0.500000
-0.322974 -0.274222 0.033660 0.800000 0.200000 0.500000
0.257610 0.696154 -0.015862 0.800000 0.200000 0.500000
0.163267 0.830196 0.040072 1.000000 0.000000 0.000000
0.375549 0.055469 0.046925 1.000000 0.000000 0.000000
-0.036045 -0.807574 0.012072 0.800000 0.200000 0.500000
-0.028438 -0.924940 -0.015560 0.800000 0.200000 0.500000
-0.323120 -0.357419 0.012855 0.800000 0.200000 0.500000
-0.111699 0.746051 -0.015833 0.800000 0.200000 0.500000
0.198810 -0.364972 0.012072 0.800000 0.200000 0.500000
0.070006 -0.057151 0.013999 0.800000 0.200000 0.500000
0.196569 0.123070 0.013999 0.800000 0.200000 0.500000
0.276196 0.380268 -0.015862 0.800000 0.200000 0.500000
0.334795 0.539117 0.032865 1.000000 0.000000 0.000000
0.294351 -0.584530 -0.015862 0.800000 0.200000 0.500000
0.363926 -0.411861 -0.047787 1.000000 0.000000 0.000000
0.390296 -0.197365 -0.046728 1.000000 0.000000 0.000000
-0.000576 0.487459 0.012072 0.800000 0.200000 0.500000
0.156159 -0.036698 0.012072 0.800000 0.200000 0.500000
-0.342994 -0.281017 -0.047782 1.000000 0.000000 0.000000
-0.280484 -0.884127 0.012072 0.800000 0.200000 0.500000
0.000260 -0.176703 0.013999 0.800000 0.200000 0.500000
0.308212 0.231123 0.013996 0.800000 0.200000 0.500000
-0.097128 -0.869507 0.012072 0.800000 0.200000 0.500000
0.259396 -0.793108 -0.015862 0.800000 0.200000 0.500000
0.146645 -0.846029 -0.013935 0.800000 0.200000 0.500000
-0.209312 0.201213 0.012072 0.800000 0.200000 0.500000
-0.124853 -0.925466 -0.014332 0.800000 0.200000 0.500000
0.288150 -0.755347 0.013999 0.800000 0.200000 0.500000
-0.336953 0.107660 0.046546 0.800000 0.200000 0.500000
0.392873 0.309506 -0.028278 1.000000 0.000000 0.000000
0.142977 -0.114204 -0.015862 0.800000 0.200000 0.500000
0.182066 0.500399 0.014332 0.800000 0.200000 0.500000
0.196136 -0.746988 -0.013935 0.800000 0.200000 0.500000
-0.071872 -0.319037 -0.015862 0.800000 0.200000 0.500000
-0.000098 0.649712 -0.015862 0.800000 0.200000 0.500000
0.119225 0.791346 -0.047787 1.000000 0.000000 0.000000
0.089600 0.519591 0.013999 0.800000 0.200000 0.500000
0.146428 -0.416569 0.012072 0.800000 0.200000 0.500000
0.250057 -0.511764 -0.015862 0.800000 0.200000 0.500000
0.054564 0.725298 0.012072 0.800000 0.200000 0.500000
0.129066 -0.235689 -0.015862 0.800000 0.200000 0.500000
-0.014917 -0.738460 0.013999 0.800000 0.200000 0.500000
-0.378832 -0.140601 -0.045986 1.000000 0.000000 0.000000
0.251556 -0.081662 0.013999 0.800000 0.200000 0.500000
0.393389 -0.470030 -0.041851 1.000000 0.000000 0.000000
0.240490 -0.164927 0.013999 0.800000 0.200000 0.500000
0.289505 -0.011827 0.013999 0.800000 0.200000 0.500000
-0.041574 -0.886702 0.012072 0.800000 0.200000 0.500000
0.392873 -0.065584 -0.030819 1.000000 0.000000 0.000000
0.038466 -0.126329 0.014057 0.800000 0.200000 0.500000
0.285334 -0.420899 0.013999 0.800000 0.200000 0.500000
-0.268475 0.480477 -0.013935 0.800000 0.200000 0.500000
-0.060590 0.703278 -0.015862 0.800000 0.200000 0.500000
-0.251463 0.065298 0.014166 0.800000 0.200000 0.500000
-0.168848 0.244283 -0.015862 0.800000 0.200000 0.500000
-0.284892 -0.498862 -0.015862 0.800000 0.200000 0.500000
-0.119543 0.501562 -0.015862 0.800000 0.200000 0.500000
0.309403 0.127846 0.013994 0.800000 0.200000 0.500000
0.290434 -0.654816 -0.013935 0.800000 0.200000 0.500000
0.392873 0.554509 -0.018456 1.000000 0.000000 0.000000
-0.339443 0.038353 -0.036064 1.000000 0.000000 0.000000
-0.228387 0.431904 0.014331 0.800000 0.200000 0.500000
0.227983 -0.246862 -0.015862 0.800000 0.200000 0.500000
0.272610 -0.706616 0.012072 0.800000 0.200000 0.500000
0.358816 0.828824 0.009561 1.000000 0.000000 0.000000
-0.307854 0.001084 -0.016517 0.800000 0.200000 0.500000
-0.058406 -0.460057 -0.015862 0.800000 0.200000 0.500000
0.051009 -0.799137 -0.015862 0.800000 0.200000 0.500000
-0.373367 0.321149 -0.047715 1.000000 0.000000 0.000000
-0.360598 0.018032 0.046925 1.000000 0.000000 0.000000
0.197822 -0.925748 0.012479 0.800000 0.200000 0.500000
0.377290 0.132170 0.046925 1.000000 0.000000 0.000000
-0.179028 -0.075256 0.012072 0.800000 0.200000 0.500000
-0.279677 -0.605044 -0.013370 0.800000 0.200000 0.500000
0.089644 -0.481583 -0.013911 0.800000 0.200000 0.500000
0.054405 -0.297305 -0.013935 0.800000 0.200000 0.500000
-0.292805 -0.765193 -0.015862 0.800000 0.200000 0.500000
-0.327804 0.243766 0.014440 0.800000 0.200000 0.500000
-0.082989 -0.792980 -0.015862 0.800000 0.200000 0.500000
-0.119485 0.776214 0.020683 0.800000 0.200000 0.500000
-0.295069 -0.195235 0.012072 0.800000 0.200000 0.500000
0.156989 -0.205073 0.012072 0.800000 0.200000 0.500000
0.042070 0.417104 -0.015862 0.800000 0.200000 0.500000
0.355609 0.783730 -0.047786 1.000000 0.000000 0.000000
-0.060159 0.564744 0.013999 0.800000 0.200000 0.500000
-0.267641 -0.083139 -0.015862 0.800000 0.200000 0.500000
0.233107 -0.694555 -0.013935 0.800000 0.200000 0.500000
-0.220027 0.367234 0.014362 0.800000 0.200000 0.500000
0.151382 -0.347015 -0.013935 0.800000 0.200000 0.500000
-0.374705 -0.864767 0.046682 1.000000 0.000000 0.000000
0.391868 0.032263 -0.039678 1.000000 0.000000 0.000000
0.344882 0.704660 0.025755 0.800000 0.200000 0.500000
-0.334515 -0.542902 -0.031496 1.000000 0.000000 0.000000
0.133007 0.249238 -0.013935 0.800000 0.200000 0.500000
-0.303638 0.092095 0.014642 0.800000 0.200000 0.500000
0.304898 -0.475113 -0.015862 0.800000 0.200000 0.500000
-0.339923 0.799610 -0.047787 1.000000 0.000000 0.000000
0.205963 -0.047269 0.053442 0.600000 0.000000 0.300000
0.229747 0.773103 -0.043707 1.000000 0.000000 0.000000
-0.380476 0.535258 -0.010907 1.000000 0.000000 0.000000
0.239312 -0.333874 -0.015862 0.800000 0.200000 0.500000
-0.147735 0.539739 -0.013935 0.800000 0.200000 0.500000
-0.214610 -0.187124 -0.013935 0.800000 0.200000 0.500000
0.267855 0.062630 0.013999 0.800000 0.200000 0.500000
0.341610 -0.108820 0.043998 1.000000 0.000000 0.000000
-0.380476 0.607009 0.002669 1.000000 0.000000 0.000000
0.086499 0.362980 -0.015862 0.800000 0.200000 0.500000
-0.380476 -0.228691 0.004064 1.000000 0.000000 0.000000
0.012964 -0.511993 0.012072 0.800000 0.200000 0.500000
0.163556 -0.496901 0.012072 0.800000 0.200000 0.500000
0.172484 -0.557846 -0.015862 0.800000 0.200000 0.500000
-0.242073 -0.776733 -0.015862 0.800000 0.200000 0.500000
0.055426 0.038468 -0.013935 0.800000 0.200000 0.500000
-0.308176 -0.050398 0.014949 0.800000 0.200000 0.500000
-0.309188 0.586682 -0.013935 0.800000 0.200000 0.500000
0.394102 -0.240238 0.041630 1.000000 0.000000 0.000000
0.350252 -0.276058 -0.047489 1.000000 0.000000 0.000000
0.275382 0.463753 -0.015862 0.800000 0.200000 0.500000
-0.290676 -0.692241 0.012072 0.800000 0.200000 0.500000
0.338329 0.157182 0.040979 1.000000 0.000000 0.000000
0.019069 -0.595715 -0.015862 0.800000 0.200000 0.500000
-0.283378 0.773984 -0.017438 0.800000 0.200000 0.500000
0.097104 0.557857 -0.013602 0.800000 0.200000 0.500000
-0.380476 -0.327022 -0.001782 1.000000 0.000000 0.000000
-0.192606 0.758861 0.018399 0.800000 0.200000 0.500000
-0.331761 -0.890196 0.045308 0.800000 0.200000 0.500000
-0.138700 0.830184 0.040980 1.000000 0.000000 0.000000
0.122643 0.093615 0.009585 0.800000 0.200000 0.500000
-0.380476 -0.404496 0.004359 1.000000 0.000000 0.000000
0.343331 0.113062 -0.023129 0.800000 0.200000 0.500000
-0.191708 0.068180 0.011886 0.800000 0.200000 0.500000
0.312876 0.373157 0.013992 0.800000 0.200000 0.500000
0.280944 -0.234808 -0.015862 0.800000 0.200000 0.500000
0.028951 -0.760516 0.012072 0.800000 0.200000 0.500000
-0.163763 0.372383 -0.015862 0.800000 0.200000 0.500000
0.081205 -0.109094 -0.013566 0.800000 0.200000 0.500000
-0.129886 -0.139305 0.012072 0.800000 0.200000 0.500000
-0.190528 0.148914 -0.015862 0.800000 0.200000 0.500000
-0.318922 0.640875 0.022812 0.800000 0.200000 0.500000
-0.296652 0.320768 -0.013935 0.800000 0.200000 0.500000
-0.380476 0.392541 0.017797 1.000000 0.000000 0.000000
0.106470 -0.720286 -0.013438 0.800000 0.200000 0.500000
-0.055749 0.636996 0.014350 0.800000 0.200000 0.500000
0.376351 -0.194657 0.046925 1.000000 0.000000 0.000000
0.211882 0.706169 -0.013935 0.800000 0.200000 0.500000
-0.152943 -0.811863 -0.013935 0.800000 0.200000 0.500000
0.392873 -0.317406 -0.008709 1.000000 0.000000 0.000000
0.029274 -0.666234 -0.013935 0.800000 0.200000 0.500000
0.348232 -0.927744 0.041897 1.000000 0.000000 0.000000
0.334849 -0.381212 0.033055 1.000000 0.000000 0.000000
0.234534 -0.425460 0.012072 0.800000 0.200000 0.500000
-0.380476 -0.600305 0.007812 1.000000 0.000000 0.000000
-0.049561 0.829576 0.044085 1.000000 0.000000 0.000000
-0.163136 -0.674012 -0.015862 0.800000 0.200000 0.500000
0.128469 0.019797 0.012072 0.800000 0.200000 0.500000
0.120131 -0.916258 -0.015860 0.800000 0.200000 0.500000
0.355613 -0.809113 0.046922 1.000000 0.000000 0.000000
-0.030601 0.280084 -0.013578 0.800000 0.200000 0.500000
-0.376234 -0.790300 -0.047657 1.000000 0.000000 0.000000
0.333625 -0.769018 -0.029640 1.000000 0.000000 0.000000
0.147652 0.133495 0.012072 0.800000 0.200000 0.500000
0.284407 -0.829973 0.013999 0.800000 0.200000 0.500000
0.024947 -0.426747 0.014471 0.800000 0.200000 0.500000
0.260273 0.190824 0.013999 0.800000 0.200000 0.500000
0.068223 0.123393 0.013999 0.800000 0.200000 0.500000
-0.380476 0.188656 0.031732 1.000000 0.000000 0.000000
0.392873 -0.637664 -0.004850 1.000000 0.000000 0.000000
-0.177026 -0.742220 -0.013935 0.800000 0.200000 0.500000
0.165518 -0.297215 0.012072 0.800000 0.200000 0.500000
-0.324092 0.500409 -0.038488 1.000000 0.000000 0.000000
0.008591 0.191579 0.013999 0.800000 0.200000 0.500000
0.238197 0.780622 0.046121 1.000000 0.000000 0.000000
-0.190816 -0.536663 0.013999 0.800000 0.200000 0.500000
-0.008770 0.149041 -0.013935 0.800000 0.200000 0.500000
0.334157 0.363985 -0.031499 1.000000 0.000000 0.000000
-0.380476 -0.923533 -0.000358 1.000000 0.000000 0.000000
0.225690 0.414820 0.014332 0.800000 0.200000 0.500000
0.246306 0.335737 -0.013935 0.800000 0.200000 0.500000
-0.022966 0.002947 -0.013935 0.800000 0.200000 0.500000
0.389633 0.682145 -0.047288 1.000000 0.000000 0.000000
0.392873 -0.749622 0.002142 1.000000 0.000000 0.000000
0.215832 0.022353 -0.015862 0.800000 0.200000 0.500000
-0.280608 0.164793 -0.013935 0.800000 0.200000 0.500000
0.100032 -0.397585 -0.015862 0.800000 0.200000 0.500000
0.390397 0.691951 0.046270 1.000000 0.000000 0.000000
-0.076431 -0.257575 -0.015862 0.800000 0.200000 0.500000
-0.323704 0.716146 -0.014446 0.800000 0.200000 0.500000
-0.091771 -0.513219 0.012072 0.800000 0.200000 0.500000
0.392740 -0.813681 -0.041639 1.000000 0.000000 0.000000
0.378365 -0.561409 -0.047787 1.000000 0.000000 0.000000
0.147269 -0.645027 0.013999 0.800000 0.200000 0.500000
-0.128424 -0.189611 0.012072 0.800000 0.200000 0.500000
-0.380476 -0.674816 0.037152 1.000000 0.000000 0.000000
0.317891 -0.218165 0.014504 0.800000 0.200000 0.500000
-0.340949 -0.430788 -0.047780 1.000000 0.000000 0.000000
0.220947 -0.625713 0.014161 0.800000 0.200000 0.500000
-0.325052 0.733899 0.039369 0.800000 0.200000 0.500000
0.202856 0.828824 0.003152 1.000000 0.000000 0.000000
-0.220624 0.134910 0.013999 0.800000 0.200000 0.500000
-0.144005 -0.499608 0.013999 0.800000 0.200000 0.500000
0.156949 -0.713608 -0.015862 0.800000 0.200000 0.500000
-0.098500 -0.606238 -0.015862 0.800000 0.200000 0.500000
0.193706 0.662146 -0.015862 0.800000 0.200000 0.500000
0.362138 0.283289 -0.047787 1.000000 0.000000 0.000000
0.393390 0.134506 -0.043724 1.000000 0.000000 0.000000
0.229343 0.266052 -0.015862 0.800000 0.200000 0.500000
-0.208118 0.516959 0.013999 0.800000 0.200000 0.500000
0.392873 -0.492641 0.007657 1.000000 0.000000 0.000000
0.394064 0.372368 0.039539 1.000000 0.000000 0.000000
0.257361 0.808868 -0.047787 1.000000 0.000000 0.000000
-0.355301 0.219948 -0.047787 1.000000 0.000000 0.000000
-0.323544 -0.722085 0.035540 0.800000 0.200000 0.500000
0.228620 0.623745 -0.015862 0.800000 0.200000 0.500000
0.354498 -0.899376 -0.047783 1.000000 0.000000 0.000000
0.185442 0.323658 0.013999 0.800000 0.200000 0.500000
-0.141782 -0.053546 -0.015862 0.800000 0.200000 0.500000
-0.378656 0.307159 0.040404 1.000000 0.000000 0.000000
0.330770 0.510041 -0.021820 1.000000 0.000000 0.000000
-0.380476 0.686575 -0.012824 1.000000 0.000000 0.000000
0.208291 -0.817070 -0.015862 0.800000 0.200000 0.500000
-0.364131 0.680597 0.046925 1.000000 0.000000 0.000000
-0.141190 0.154233 -0.015862 0.800000 0.200000 0.500000
-0.053201 -0.085434 0.014038 0.800000 0.200000 0.500000
-0.033271 0.720891 0.013999 0.800000 0.200000 0.500000
-0.281315 0.375914 0.012072 0.800000 0.200000 0.500000
-0.330311 -0.670017 -0.019433 0.800000 0.200000 0.500000
-0.254618 -0.831030 -0.015862 0.800000 0.200000 0.500000
0.090059 0.763707 0.025352 0.800000 0.200000 0.500000
-0.378995 -0.473850 -0.045849 1.000000 0.000000 0.000000
-0.380476 -0.002572 -0.025134 1.000000 0.000000 0.000000
0.359665 0.722965 -0.047785 1.000000 0.000000 0.000000
-0.234740 -0.490297 0.012072 0.800000 0.200000 0.500000
-0.027938 -0.543263 0.013999 0.800000 0.200000 0.500000
-0.073787 0.196558 0.013999 0.800000 0.200000 0.500000
0.351268 -0.624322 -0.036531 1.000000 0.000000 0.000000
0.392063 0.507077 -0.039823 1.000000 0.000000 0.000000
0.085361 0.644257 0.012072 0.800000 0.200000 0.500000
-0.379165 0.460485 -0.039507 1.000000 0.000000 0.000000
-0.354910 -0.535235 0.046925 1.000000 0.000000 0.000000
-0.240138 -0.117305 -0.015862 0.800000 0.200000 0.500000
0.126250 -0.268943 0.011837 0.800000 0.200000 0.500000
0.388091 -0.555921 0.046660 1.000000 0.000000 0.000000
0.268663 -0.486536 0.013999 0.800000 0.200000 0.500000
0.122802 -0.821600 0.013999 0.800000 0.200000 0.500000
-0.180595 -0.001307 -0.015862 0.800000 0.200000 0.500000
-0.141522 0.631970 -0.015862 0.800000 0.200000 0.500000
0.067930 0.248481 -0.015862 0.800000 0.200000 0.500000
0.372455 -0.320605 -0.047787 1.000000 0.000000 0.000000
0.393850 0.491552 0.044230 1.000000 0.000000 0.000000
-0.302489 -0.238270 0.014361 0.800000 0.200000 0.500000
0.330542 0.330729 0.020940 1.000000 0.000000 0.000000
0.216654 0.088912 -0.015862 0.800000 0.200000 0.500000
0.164500 -0.074084 -0.015862 0.800000 0.200000 0.500000
0.101204 -0.343449 -0.015862 0.800000 0.200000 0.500000
-0.036874 0.092243 0.009585 0.800000 0.200000 0.500000
-0.327013 0.339509 0.014052 0.800000 0.200000 0.500000
0.081727 0.069014 0.013999 0.800000 0.200000 0.500000
-0.192776 -0.448179 0.012072 0.800000 0.200000 0.500000
-0.232569 0.827438 0.045137 1.000000 0.000000 0.000000
0.279097 -0.366890 -0.015862 0.800000 0.200000 0.500000
-0.051149 -0.574789 -0.015862 0.800000 0.200000 0.500000
0.020857 0.254151 -0.015862 0.800000 0.200000 0.500000
0.357418 -0.029026 -0.047784 1.000000 0.000000 0.000000
-0.043701 0.441596 0.014034 0.800000 0.200000 0.500000
-0.339637 -0.733514 -0.047662 1.000000 0.000000 0.000000
0.068489 -0.220078 -0.013935 0.800000 0.200000 0.500000
0.030685 -0.346709 -0.015862 0.800000 0.200000 0.500000
-0.057760 0.798981 -0.037882 1.000000 0.000000 0.000000
0.290164 0.602217 0.013999 0.800000 0.200000 0.500000
-0.188043 0.683730 0.012072 0.800000 0.200000 0.500000
-0.098952 0.391732 0.013999 0.800000 0.200000 0.500000
-0.260284 -0.649852 -0.015862 0.800000 0.200000 0.500000
0.356332 -0.014037 0.046922 1.000000 0.000000 0.000000
0.135591 0.302285 0.013999 0.800000 0.200000 0.500000
-0.242424 0.640579 0.012072 0.800000 0.200000 0.500000
0.321872 -0.436451 -0.013687 0.800000 0.200000 0.500000
0.010291 -0.138095 -0.015862 0.800000 0.200000 0.500000
0.102885 -0.685715 0.014185 0.800000 0.200000 0.500000
0.392873 0.285240 0.032378 1.000000 0.000000 0.000000
0.161690 0.637622 0.012072 0.800000 0.200000 0.500000
-0.036002 0.327043 -0.015862 0.800000 0.200000 0.500000
0.291481 -0.919552 0.013931 0.800000 0.200000 0.500000
-0.266849 -0.426724 -0.013935 0.800000 0.200000 0.500000
0.164247 0.169165 -0.013656 0.800000 0.200000 0.500000
0.038398 0.632752 -0.013935 0.800000 0.200000 0.500000
0.094892 0.712422 0.013999 0.800000 0.200000 0.500000
-0.347237 -0.927747 -0.043864 1.000000 0.000000 0.000000
-0.380476 -0.867625 -0.008549 1.000000 0.000000 0.000000
-0.376506 -0.209080 0.046610 1.000000 0.000000 0.000000
0.206642 0.583615 0.012072 0.800000 0.200000 0.500000
0.353602 -0.372355 -0.037633 1.000000 0.000000 0.000000
-0.281353 0.772150 0.042068 1.000000 0.000000 0.000000
0.049812 -0.624411 -0.015862 0.800000 0.200000 0.500000
0.083121 -0.537705 0.013999 0.800000 0.200000 0.500000
0.212094 -0.156782 -0.015862 0.800000 0.200000 0.500000
0.005064 0.285553 0.013999 0.800000 0.200000 0.500000
0.186374 -0.175180 0.014344 0.800000 0.200000 0.500000
0.278044 -0.039612 -0.054304 0.600000 0.300000 0.000000
-0.090440 -0.344499 0.013998 0.800000 0.200000 0.500000
-0.170827 -0.885686 0.013999 0.800000 0.200000 0.500000
0.320067 0.828824 -0.007466 1.000000 0.000000 0.000000
0.336826 -0.832911 0.013263 0.800000 0.200000 0.500000
-0.267608 -0.127541 0.013999 0.800000 0.200000 0.500000
0.270053 0.511077 -0.013935 0.800000 0.200000 0.500000
-0.335494 -0.115618 0.034449 1.000000 0.000000 0.000000
0.389844 0.398600 -0.047109 1.000000 0.000000 0.000000
0.331753 -0.505838 0.023877 1.000000 0.000000 0.000000
-0.107984 0.715172 0.012072 0.800000 0.200000 0.500000
-0.261433 0.717790 -0.015862 0.800000 0.200000 0.500000
-0.284575 0.119710 -0.013938 0.800000 0.200000 0.500000
-0.049935 -0.041408 -0.013573 0.800000 0.200000 0.500000
-0.185240 -0.155345 0.012072 0.800000 0.200000 0.500000
-0.291281 -0.392314 0.012072 0.800000 0.200000 0.500000
0.316091 -0.557906 0.014215 0.800000 0.200000 0.500000
0.136254 0.765840 -0.013868 0.800000 0.200000 0.500000
0.123470 0.431621 0.009594 0.800000 0.200000 0.500000
-0.208364 -0.714919 -0.013935 0.800000 0.200000 0.500000
-0.136580 0.659966 0.014407 0.800000 0.200000 0.500000
0.223596 0.133041 -0.015862 0.800000 0.200000 0.500000
0.049322 0.307516 -0.013935 0.800000 0.200000 0.500000
-0.097377 0.325114 -0.015862 0.800000 0.200000 0.500000
-0.324253 0.174886 -0.014255 0.800000 0.200000 0.500000
0.093556 -0.294588 0.012072 0.800000 0.200000 0.500000
0.243796 -0.029918 -0.015862 0.800000 0.200000 0.500000
-0.146162 0.204350 -0.013935 0.800000 0.200000 0.500000
0.006811 -0.097335 0.012072 0.800000 0.200000 0.500000
-0.219201 -0.603193 -0.015862 0.800000 0.200000 0.500000
0.125367 0.485160 0.012072 0.800000 0.200000 0.500000
-0.249444 -0.347987 0.013999 0.800000 0.200000 0.500000
-0.286596 -0.322856 0.013999 0.800000 0.200000 0.500000
0.337528 0.177538 -0.014485 0.800000 0.200000 0.500000
-0.319439 -0.865743 0.012273 0.800000 0.200000 0.500000
0.117921 0.828824 0.031804 1.000000 0.000000 0.000000
-0.380476 -0.369087 -0.016406 1.000000 0.000000 0.000000
0.349235 -0.721559 0.046528 1.000000 0.000000 0.000000
0.214575 -0.572329 -0.015862 0.800000 0.200000 0.500000
0.260263 -0.559844 -0.013710 0.800000 0.200000 0.500000
-0.045827 -0.113736 -0.015862 0.800000 0.200000 0.500000
-0.322173 -0.813628 0.012564 0.800000 0.200000 0.500000
0.093522 0.198460 -0.013813 0.800000 0.200000 0.500000
0.392873 0.011077 0.004421 1.000000 0.000000 0.000000
0.270099 0.732878 0.013999 0.800000 0.200000 0.500000
-0.342144 -0.345145 0.046919 1.000000 0.000000 0.000000
-0.243114 -0.030729 0.012072 0.800000 0.200000 0.500000
0.253519 -0.235497 0.014441 0.800000 0.200000 0.500000
0.392873 -0.401412 0.019194 1.000000 0.000000 0.000000
-0.088668 0.274008 0.014025 0.800000 0.200000 0.500000
-0.077869 -0.736342 -0.013935 0.800000 0.200000 0.500000
-0.039526 -0.439720 0.013999 0.800000 0.200000 0.500000
-0.380476 -0.141823 -0.003696 1.000000 0.000000 0.000000
0.172497 -0.768099 0.013999 0.800000 0.200000 0.500000
0.158293 0.570443 -0.015862 0.800000 0.200000 0.500000
-0.202930 -0.383980 0.013999 0.800000 0.200000 0.500000
0.055656 0.148110 -0.015862 0.800000 0.200000 0.500000
0.372627 -0.316206 0.046925 1.000000 0.000000 0.000000
0.026540 -0.306911 0.013999 0.800000 0.200000 0.500000
-0.105693 -0.837500 -0.013719 0.800000 0.200000 0.500000
-0.005321 0.789667 -0.047786 1.000000 0.000000 0.000000
0.022166 0.064317 -0.013939 0.800000 0.200000 0.500000
-0.318726 -0.111255 -0.022634 0.800000 0.200000 0.500000
0.308435 0.794590 -0.047787 1.000000 0.000000 0.000000
-0.016496 -0.829368 -0.015862 0.800000 0.200000 0.500000
-0.251744 0.242117 0.013999 0.800000 0.200000 0.500000
0.343223 -0.200440 -0.021236 0.800000 0.200000 0.500000
-0.178653 0.349851 0.014395 0.800000 0.200000 0.500000
-0.239858 0.574709 -0.013935 0.800000 0.200000 0.500000
-0.300318 -0.459644 -0.013936 0.800000 0.200000 0.500000
-0.309303 0.828824 0.002148 1.000000 0.000000 0.000000
-0.018961 0.568735 0.012072 0.800000 0.200000 0.500000
0.077189 -0.375398 0.013999 0.800000 0.200000 0.500000
0.374240 0.324136 0.046925 1.000000 0.000000 0.000000
-0.163352 -0.241052 -0.015862 0.800000 0.200000 0.500000
0.392873 -0.156578 -0.032776 1.000000 0.000000 0.000000
-0.154618 0.317933 -0.013924 0.800000 0.200000 0.500000
-0.198552 -0.284272 0.012072 0.800000 0.200000 0.500000
0.053820 -0.919858 -0.015807 0.800000 0.200000 0.500000
-0.208496 -0.678469 0.012072 0.800000 0.200000 0.500000
-0.193209 0.259966 0.012072 0.800000 0.200000 0.500000
-0.303663 0.275944 0.014219 0.800000 0.200000 0.500000
-0.193908 0.799228 -0.037879 1.000000 0.000000 0.000000
-0.260360 -0.534592 0.013999 0.800000 0.200000 0.500000
0.349528 0.581336 -0.035299 1.000000 0.000000 0.000000
-0.230833 -0.905081 0.013999 0.800000 0.200000 0.500000
0.016720 0.408867 0.014166 0.800000 0.200000 0.500000
0.392873 0.274222 -0.009148 1.000000 0.000000 0.000000
-0.176566 0.548153 0.013999 0.800000 0.200000 0.500000
0.338880 0.651597 -0.015141 0.800000 0.200000 0.500000
0.385206 -0.777689 0.046790 1.000000 0.000000 0.000000
0.276503 -0.090707 -0.016792 0.500000 0.500000 0.000000
0.106298 0.607131 0.012072 0.800000 0.200000 0.500000
-0.378801 0.626085 0.045088 1.000000 0.000000 0.000000
0.198500 0.765701 0.012265 0.800000 0.200000 0.500000
-0.044067 0.385957 -0.015862 0.800000 0.200000 0.500000
-0.087527 -0.901594 -0.015862 0.800000 0.200000 0.500000
0.272592 -0.130198 0.015435 1.000000 0.000000 0.000000
-0.082922 0.140868 -0.013935 0.800000 0.200000 0.500000
0.221913 -0.070565 -0.015862 0.800000 0.200000 0.500000
0.030069 -0.886191 0.013999 0.800000 0.200000 0.500000
0.186196 0.444176 -0.015862 0.800000 0.200000 0.500000
-0.198885 0.789207 0.046895 1.000000 0.000000 0.000000
-0.240520 -0.264576 0.013999 0.800000 0.200000 0.500000
-0.098050 -0.768842 0.012072 0.800000 0.200000 0.500000
-0.369828 0.114945 -0.047787 1.000000 0.000000 0.000000
0.268515 0.568549 -0.015862 0.800000 0.200000 0.500000
-0.119353 0.538600 0.013999 0.800000 0.200000 0.500000
0.277442 -0.620478 0.014411 0.800000 0.200000 0.500000
0.024340 -0.060302 0.013999 0.800000 0.200000 0.500000
0.057212 -0.732651 -0.013421 0.800000 0.200000 0.500000
